# .PCD v0.7 - Point Cloud Data file format
VERSION 0.7
FIELDS x y z rgb
SIZE 4 4 4 4
TYPE F F F F
COUNT 1 1 1 1
WIDTH 889
HEIGHT 1
VIEWPOINT 0 0 0 1 0 0 0
POINTS 889
DATA ascii
-41.24781418 -47.16551208 -1.623096108 1.818342824e-38
-29.15862846 -34.16471863 -1.163512945 1.956096068e-38
-35.10025787 -42.14535522 -1.420783639 1.882627671e-38
-39.83246613 -48.61689758 -1.628095865 1.818342824e-38
-39.66197968 -48.80770874 -1.62914145 1.818342824e-38
-39.43226624 -48.92560577 -1.627768874 1.818342824e-38
-39.20695877 -49.04834366 -1.626592398 1.818342824e-38
-14.99958229 -18.92006874 -0.6254423261 2.121399961e-38
-14.88782978 -18.93504333 -0.6239542961 2.130583511e-38
-14.77859306 -18.95241165 -0.6225631237 2.130583511e-38
-14.68100357 -18.98407173 -0.6216606498 2.130583511e-38
-14.16776276 -18.9422245 -0.6127505898 2.130583511e-38
-14.09012413 -18.99713516 -0.612688005 2.130583511e-38
-13.79495335 -18.91512299 -0.6064471602 2.130583511e-38
-13.67947674 -18.91601372 -0.6047093272 2.130583511e-38
-13.55736828 -18.90681648 -0.6026668549 2.130583511e-38
-13.47055531 -18.94613075 -0.6021889448 2.130583511e-38
-13.32065201 -18.89561272 -0.5988786221 2.130583511e-38
-12.87928391 -18.90799332 -0.5926241875 2.13976706e-38
-12.80528831 -18.9627285 -0.5927255154 2.13976706e-38
-12.68781471 -19.62817192 -0.6054335237 2.130583511e-38
-12.73327065 -19.87317467 -0.6114066839 2.130583511e-38
-12.68352032 -19.97185516 -0.6128628254 2.130583511e-38
-33.27227783 -54.30157852 -1.649695516 1.818342824e-38
-32.44994736 -54.92273712 -1.652498126 1.818342824e-38
-32.2493782 -55.08782196 -1.653554559 1.818342824e-38
-32.01381683 -55.19309998 -1.652835011 1.818342824e-38
-31.57302856 -55.45568085 -1.65304327 1.818342824e-38
-31.20747566 -55.85330963 -1.657357693 1.809159274e-38
-30.51647377 -56.19763565 -1.656539798 1.809159274e-38
-15.72962379 -29.24667358 -0.8602328897 2.047931564e-38
-15.635952 -29.35469246 -0.8615543842 2.047931564e-38
-29.91137886 -56.70344925 -1.660694838 1.809159274e-38
-29.67297173 -56.80368805 -1.660119891 1.809159274e-38
-29.04230118 -57.26885986 -1.663357258 1.809159274e-38
-28.81988335 -57.40108871 -1.663823366 1.809159274e-38
-28.63053703 -57.60028458 -1.666245341 1.809159274e-38
-28.33734703 -57.59012222 -1.662642241 1.809159274e-38
-28.13256454 -57.75897217 -1.664239407 1.809159274e-38
-27.92817116 -57.92969513 -1.665906549 1.809159274e-38
-27.70532799 -58.06298828 -1.666527867 1.809159274e-38
-27.49265099 -58.21826172 -1.667790651 1.809159274e-38
-27.25319099 -58.31713867 -1.667480946 1.809159274e-38
-27.03123474 -58.45370102 -1.668259859 1.809159274e-38
-26.83738708 -58.65229034 -1.670833111 1.809159274e-38
-26.16446495 -59.05366516 -1.673164606 1.809159274e-38
-25.70522308 -59.29993439 -1.674234748 1.809159274e-38
-25.22838593 -59.50646591 -1.674285889 1.809159274e-38
-19.85786819 -47.36798096 -1.330493093 1.91017832e-38
-19.66217613 -47.43510437 -1.330143929 1.91017832e-38
-19.47237587 -47.51625061 -1.330212831 1.91017832e-38
-11.76189709 -29.0332756 -0.8114543557 2.066298664e-38
-24.09097099 -60.16062546 -1.678717136 1.809159274e-38
-23.87852478 -60.33165741 -1.680793524 1.809159274e-38
-16.28141022 -41.62488937 -1.157806396 1.956096068e-38
-23.17164612 -60.67393112 -1.682425499 1.809159274e-38
-22.94242477 -60.80615234 -1.683522224 1.809159274e-38
-22.69922638 -60.90151215 -1.683618188 1.809159274e-38
-13.40260506 -36.40543365 -1.00493145 2.002013816e-38
-10.44254875 -29.08420372 -0.8004928827 2.066298664e-38
-10.31081295 -29.08444214 -0.7993527055 2.066298664e-38
-10.13734245 -28.9642868 -0.794925034 2.066298664e-38
-10.02987576 -29.03099632 -0.7956414819 2.075482213e-38
-9.61971283 -28.97123909 -0.7907658219 2.075482213e-38
-9.229511261 -28.95907211 -0.7873405218 2.075482213e-38
-9.126214981 -29.03789902 -0.7884791493 2.075482213e-38
-9.001117706 -29.04760361 -0.787753582 2.075482213e-38
-8.832938194 -28.91554451 -0.7831996083 2.075482213e-38
-8.715272903 -28.94638062 -0.7830810547 2.075482213e-38
-8.605207443 -29.00280952 -0.7836664915 2.075482213e-38
-8.340408325 -28.96200562 -0.7807267308 2.075482213e-38
-8.186356544 -28.86292267 -0.7771618366 2.075482213e-38
-17.40359497 -63.29421997 -1.700441122 1.799975725e-38
-17.16146088 -63.40980911 -1.701667666 1.799975725e-38
-16.6635685 -63.59328842 -1.702944994 1.799975725e-38
-15.93807697 -63.96069717 -1.707514405 1.799975725e-38
-15.67604065 -64.00454712 -1.706984758 1.799975725e-38
-6.561373234 -28.78535461 -0.7647851706 2.084665763e-38
-6.446217537 -28.81410408 -0.7648550868 2.084665763e-38
-6.320004463 -28.7928524 -0.7636145353 2.084665763e-38
-6.053003788 -28.67541695 -0.7591810822 2.084665763e-38
-5.967431545 -28.84339714 -0.7629926801 2.084665763e-38
-5.706470966 -28.74507332 -0.7591488361 2.084665763e-38
-5.618885517 -28.91201973 -0.7629544139 2.084665763e-38
-5.46232748 -28.72253418 -0.7573655248 2.084665763e-38
-5.350294113 -28.76261902 -0.7578547597 2.084665763e-38
-11.62218666 -65.40013123 -1.720682621 1.790792175e-38
-11.37703228 -65.54917908 -1.723384857 1.790792175e-38
-4.873102188 -28.76239014 -0.7556833029 2.084665763e-38
-4.395308495 -28.74087334 -0.7531634569 2.084665763e-38
-4.134234905 -28.56896019 -0.7477656007 2.084665763e-38
-9.304403305 -66.17176819 -1.73098731 1.790792175e-38
-8.772087097 -66.24491119 -1.731002212 1.790792175e-38
-3.680090904 -28.6769371 -0.7489435673 2.084665763e-38
-3.558657646 -28.64193344 -0.7476460338 2.084665763e-38
-3.438850164 -28.61727142 -0.7466391921 2.084665763e-38
-3.087290287 -28.59913826 -0.745141685 2.084665763e-38
-2.980457067 -28.68992615 -0.7471860647 2.084665763e-38
-2.861069918 -28.66116714 -0.7461329699 2.084665763e-38
-2.739854336 -28.61047173 -0.7445223331 2.084665763e-38
-2.621055841 -28.57974815 -0.7434414625 2.084665763e-38
-2.511647701 -28.65288734 -0.7450776696 2.084665763e-38
-2.2715137 -28.55062294 -0.741917491 2.084665763e-38
-2.153304338 -28.51382828 -0.740729332 2.084665763e-38
-1.689813375 -28.4656105 -0.7386743426 2.084665763e-38
-1.578506947 -28.52903557 -0.7401512265 2.084665763e-38
-1.342410564 -28.3992691 -0.7364821434 2.093849312e-38
-1.228871822 -28.41933632 -0.7368656993 2.093849312e-38
-1.118023038 -28.51094818 -0.7391203046 2.093849312e-38
-0.5791130066 -18.58305359 -0.4816089571 2.176501259e-38
-0.2772244811 -18.39111328 -0.4764600992 2.176501259e-38
-0.1287469864 -18.30092239 -0.4740805328 2.176501259e-38
-0.05535363033 -18.36576462 -0.4757496715 2.176501259e-38
0.1669440866 -18.45443153 -0.4780658484 2.176501259e-38
0.3153302372 -18.45290375 -0.4780758321 2.176501259e-38
0.3878409266 -18.37365913 -0.4760592878 2.176501259e-38
0.4616285563 -18.36902046 -0.4759835899 2.176501259e-38
0.5346335769 -18.33860779 -0.4752472043 2.176501259e-38
0.8269256949 -18.2724762 -0.4738176763 2.176501259e-38
1.732650995 -28.22748947 -0.7325826287 2.093849312e-38
1.963342667 -28.26718521 -0.7340002656 2.093849312e-38
2.076929808 -28.25883102 -0.7339980602 2.093849312e-38
2.189442873 -28.23661804 -0.7336412072 2.093849312e-38
2.308249474 -28.29252434 -0.7353284359 2.093849312e-38
2.423339367 -28.29916382 -0.7357485294 2.093849312e-38
2.651439428 -28.28599548 -0.7359372377 2.093849312e-38
2.985147953 -28.18362808 -0.7341546416 2.093849312e-38
3.110481739 -28.28119087 -0.7370160818 2.093849312e-38
3.218648672 -28.21997452 -0.7357547283 2.093849312e-38
3.327308178 -28.16667938 -0.7347047925 2.093849312e-38
3.436839581 -28.12313652 -0.7339270115 2.093849312e-38
6.331939697 -50.13796997 -1.309024453 1.91017832e-38
6.509419441 -49.9279747 -1.304207563 1.91017832e-38
6.699797153 -49.8252449 -1.302228212 1.91936187e-38
3.953210592 -28.53077507 -0.7461286783 2.084665763e-38
4.076364517 -28.57439423 -0.7476886511 2.084665763e-38
4.323627949 -28.65758896 -0.7507535815 2.084665763e-38
4.578376293 -28.77595329 -0.7547912002 2.084665763e-38
4.839770794 -28.9183712 -0.7595245838 2.084665763e-38
5.235568047 -29.12162018 -0.7664660215 2.084665763e-38
5.505515575 -29.27010727 -0.7715176344 2.075482213e-38
5.760445595 -29.32552719 -0.7741687894 2.075482213e-38
5.914938927 -29.48478317 -0.7789980769 2.075482213e-38
6.177339554 -29.55842209 -0.782230854 2.075482213e-38
6.29198885 -29.51397324 -0.781716764 2.075482213e-38
6.848183632 -29.76750374 -0.7912482619 2.075482213e-38
6.970736027 -29.75237656 -0.791579783 2.075482213e-38
11.06805897 -46.3991394 -1.235602736 1.937728969e-38
11.20890903 -46.16642761 -1.230542064 1.937728969e-38
11.37729549 -46.05183792 -1.228680253 1.937728969e-38
8.042738914 -30.4439106 -0.8156782389 2.066298664e-38
8.182584763 -30.47652245 -0.8174301386 2.066298664e-38
8.35772419 -30.63655472 -0.8226166964 2.066298664e-38
8.795724869 -30.77548218 -0.8291359544 2.057115114e-38
8.974317551 -30.92927361 -0.8342420459 2.057115114e-38
13.2952919 -45.14193726 -1.218965769 1.937728969e-38
2.174898148 -7.06892252 -0.1915860027 2.277520305e-38
2.176467419 -6.974054337 -0.18924959 2.277520305e-38
2.215420246 -6.999851704 -0.1901898235 2.277520305e-38
2.218379259 -6.912500858 -0.1880582571 2.277520305e-38
2.276981831 -6.903769016 -0.188312158 2.277520305e-38
2.318329573 -6.935343742 -0.1894252896 2.277520305e-38
2.380159855 -7.026165962 -0.1921657473 2.277520305e-38
15.31281376 -44.03475189 -1.207578301 1.946912519e-38
15.80877876 -43.7528801 -1.205007553 1.946912519e-38
12.11349297 -32.30165482 -0.8936493397 2.038748015e-38
12.30804443 -32.42345428 -0.8983815908 2.038748015e-38
16.99061012 -43.1816864 -1.201980114 1.946912519e-38
17.12026978 -43.00294113 -1.198825836 1.946912519e-38
17.32262421 -43.00731277 -1.200933456 1.946912519e-38
17.4894619 -42.92277908 -1.200523973 1.946912519e-38
17.66369438 -42.85681915 -1.200711012 1.946912519e-38
17.79397011 -42.68507767 -1.197856307 1.946912519e-38
18.53135681 -42.51576614 -1.201308966 1.946912519e-38
18.70351982 -42.4441185 -1.201435447 1.946912519e-38
18.92551994 -42.48427582 -1.204710841 1.946912519e-38
19.31372833 -42.43465042 -1.207661152 1.946912519e-38
19.70630455 -42.38977051 -1.210825086 1.946912519e-38
19.86598396 -42.28767395 -1.210173368 1.937728969e-38
20.13322639 -42.41265106 -1.216089964 1.937728969e-38
20.51509285 -42.33517838 -1.218518972 1.937728969e-38
20.71691322 -42.31724548 -1.220401406 1.937728969e-38
17.53751564 -34.75546646 -1.008441567 2.002013816e-38
21.92152977 -42.17106247 -1.231055498 1.937728969e-38
22.14957428 -42.1943512 -1.234361649 1.937728969e-38
22.34047318 -42.14558411 -1.235563755 1.937728969e-38
22.55359268 -42.13729858 -1.237967968 1.937728969e-38
22.74249649 -42.08283234 -1.239062428 1.937728969e-38
22.91963959 -42.00595856 -1.239499211 1.937728969e-38
23.15894508 -42.04167557 -1.243264914 1.928545419e-38
23.372715 -42.02903748 -1.245633006 1.928545419e-38
23.50652504 -41.87258148 -1.243816376 1.928545419e-38
23.79356956 -41.98748779 -1.250069618 1.928545419e-38
21.06268311 -36.48171616 -1.091226101 1.974463167e-38
24.38657951 -41.84913635 -1.254573345 1.928545419e-38
24.56599617 -41.77019501 -1.255194664 1.928545419e-38
24.7963295 -41.77675247 -1.258409858 1.928545419e-38
25.1975174 -41.68527985 -1.261647105 1.928545419e-38
25.43099213 -41.69205475 -1.264943123 1.928545419e-38
25.62567902 -41.6336937 -1.266272664 1.928545419e-38
25.84964943 -41.62197876 -1.269124389 1.928545419e-38
26.01760101 -41.51902008 -1.269142747 1.928545419e-38
26.47483826 -41.50321579 -1.275148749 1.91936187e-38
24.56921196 -38.1767807 -1.176038146 1.956096068e-38
27.32554817 -41.35494614 -1.283961415 1.91936187e-38
27.57162476 -41.36511612 -1.287797451 1.91936187e-38
27.11873245 -39.98548508 -1.2515378 1.928545419e-38
29.14517021 -41.52002335 -1.314109564 1.91017832e-38
29.42132568 -41.55723953 -1.319037318 1.91017832e-38
29.68301392 -41.57135391 -1.323273778 1.91017832e-38
29.96494102 -41.61146164 -1.328356504 1.91017832e-38
30.56649399 -41.73517609 -1.340125203 1.90099477e-38
31.44945908 -41.87198639 -1.356586218 1.90099477e-38
32.26601791 -41.89717484 -1.369907141 1.891811221e-38
33.20531082 -42.05776596 -1.388172626 1.891811221e-38
33.48188019 -42.05921555 -1.39260447 1.891811221e-38
34.06568527 -42.09355927 -1.402747035 1.882627671e-38
34.37008286 -42.12227249 -1.408310652 1.882627671e-38
34.70142746 -42.18105316 -1.414940476 1.882627671e-38
35.03038788 -42.23386002 -1.421454072 1.882627671e-38
35.93235397 -42.27321243 -1.437238932 1.873444122e-38
36.27486038 -42.33020782 -1.444123626 1.873444122e-38
36.82758331 -42.28236771 -1.452551365 1.873444122e-38
37.0828743 -42.2314415 -1.455893993 1.873444122e-38
38.06272125 -42.30715561 -1.474223614 1.864260572e-38
38.41590881 -42.3561058 -1.481287122 1.864260572e-38
39.50402451 -42.51408768 -1.503421783 1.855077022e-38
39.87519073 -42.56903076 -1.510973573 1.855077022e-38
40.16366959 -42.53306198 -1.51542151 1.855077022e-38
40.49861526 -42.54379272 -1.521614194 1.855077022e-38
40.91954041 -42.64142227 -1.530954599 1.845893473e-38
41.24494171 -42.63614655 -1.536674857 1.845893473e-38
42.07291412 -42.79798889 -1.554679871 1.845893473e-38
42.45114899 -42.83690262 -1.562278032 1.836709923e-38
42.88006973 -42.92326355 -1.57172513 1.836709923e-38
43.28848648 -42.9850769 -1.580337167 1.836709923e-38
43.60451889 -42.95211792 -1.585549116 1.836709923e-38
44.52510452 -43.15913773 -1.606357694 1.827526374e-38
44.86550903 -43.14066696 -1.612381458 1.827526374e-38
45.3033638 -43.21253204 -1.621825337 1.818342824e-38
45.69156647 -43.23338699 -1.629509687 1.818342824e-38
46.23867035 -43.40011215 -1.642797351 1.818342824e-38
47.023983 -43.43133926 -1.658226013 1.809159274e-38
48.24244308 -43.49053192 -1.682660103 1.809159274e-38
49.12527466 -43.57557678 -1.701177835 1.799975725e-38
51.54581833 -43.90357208 -1.754032612 1.781608625e-38
52.11112595 -44.02489471 -1.767268419 1.781608625e-38
52.55554581 -44.03940964 -1.77629137 1.781608625e-38
53.04598999 -44.08868027 -1.786836028 1.772425076e-38
53.60278702 -44.18829727 -1.799574018 1.772425076e-38
54.61440277 -44.28960419 -1.821591735 1.763241526e-38
55.24963379 -44.43788147 -1.836789846 1.763241526e-38
56.22763062 -44.48459244 -1.857312799 1.754057977e-38
56.76153183 -44.53725052 -1.869070172 1.754057977e-38
57.37453842 -44.64667511 -1.883309722 1.754057977e-38
57.95045853 -44.7220459 -1.896267772 1.744874427e-38
58.50272369 -44.77421951 -1.908484101 1.744874427e-38
59.12360382 -44.8736496 -1.922823429 1.744874427e-38
59.70651627 -44.9389801 -1.935928822 1.735690877e-38
61.50390625 -45.14018631 -1.976398349 1.726507328e-38
61.83925629 -45.00484467 -1.981211782 1.726507328e-38
62.08554077 -44.80344391 -1.983315587 1.726507328e-38
62.28707504 -44.56918335 -1.984017491 1.726507328e-38
62.53490448 -44.36751556 -1.986205816 1.726507328e-38
62.80020905 -44.17727661 -1.988973022 1.726507328e-38
62.9027977 -43.872509 -1.986630797 1.726507328e-38
63.29107666 -43.3911171 -1.987807155 1.726507328e-38
63.58329773 -43.2167778 -1.991505384 1.726507328e-38
63.62802887 -42.87426758 -1.987499595 1.726507328e-38
63.89559555 -42.67878342 -1.990443587 1.717323778e-38
64.11617279 -42.456707 -1.99200356 1.717323778e-38
37.72048569 -24.76090431 -1.168834925 1.956096068e-38
27.02627182 -17.12548637 -0.828812778 2.057115114e-38
26.90644264 -16.59820366 -0.818941474 2.066298664e-38
26.93874359 -16.46903038 -0.817903161 2.066298664e-38
27.03321457 -16.37783432 -0.8187660575 2.066298664e-38
27.16859818 -16.31091881 -0.820872128 2.066298664e-38
27.43887901 -16.32348442 -0.8270508647 2.057115114e-38
27.61785316 -16.28001404 -0.8304636478 2.057115114e-38
28.00359344 -16.20544815 -0.838113308 2.057115114e-38
28.29844284 -16.22459412 -0.8449880481 2.057115114e-38
28.56550598 -16.22546196 -0.8510043025 2.057115114e-38
29.01262283 -16.17235184 -0.8604204655 2.047931564e-38
67.76447296 -37.41722107 -2.005208254 1.717323778e-38
19.91088676 -10.88990498 -0.5878763795 2.13976706e-38
19.77459145 -10.50756264 -0.5800731778 2.13976706e-38
19.75689125 -10.29529572 -0.5771046281 2.13976706e-38
19.81542397 -10.12407017 -0.5764196515 2.13976706e-38
20.14262581 -9.986784935 -0.5823884606 2.13976706e-38
20.85449791 -9.92522049 -0.598279655 2.13976706e-38
70.34137726 -33.13277054 -2.014156818 1.717323778e-38
70.70142365 -32.60890579 -2.016879797 1.717323778e-38
70.82558441 -32.32151794 -2.016703606 1.717323778e-38
71.20275116 -31.80446625 -2.020084381 1.717323778e-38
71.36199951 -31.53213501 -2.020993471 1.717323778e-38
71.76839447 -30.68260765 -2.021870375 1.717323778e-38
71.82962036 -30.36784172 -2.020147562 1.717323778e-38
72.10975647 -29.80518532 -2.021210909 1.717323778e-38
72.35889435 -29.56816101 -2.024841785 1.717323778e-38
72.41359711 -29.25133896 -2.023082733 1.717323778e-38
72.62197876 -28.65856171 -2.022397757 1.717323778e-38
72.78943634 -28.38698578 -2.023864031 1.708140229e-38
73.05463409 -27.81582451 -2.024953842 1.708140229e-38
73.31049347 -27.24050331 -2.025904417 1.708140229e-38
73.47325897 -26.9652977 -2.027393818 1.708140229e-38
73.66343689 -26.36502075 -2.02673316 1.708140229e-38
73.8640213 -26.10232353 -2.029342413 1.708140229e-38
74.21737671 -25.22465706 -2.030544519 1.708140229e-38
74.38022614 -24.9468689 -2.032235622 1.708140229e-38
74.50193024 -24.65490913 -2.03284502 1.708140229e-38
74.93618774 -23.4686718 -2.034129858 1.708140229e-38
75.08547211 -22.85416603 -2.033131361 1.708140229e-38
75.22699738 -22.5672493 -2.034490585 1.708140229e-38
75.59761047 -21.68820953 -2.037291288 1.708140229e-38
75.79451752 -21.08670616 -2.037962914 1.708140229e-38
75.85955811 -20.77661133 -2.037451267 1.708140229e-38
75.91902161 -20.46518135 -2.036821365 1.708140229e-38
76.10483551 -20.18745995 -2.039615631 1.708140229e-38
76.13764191 -19.86894226 -2.038338184 1.708140229e-38
76.26092529 -19.57398224 -2.039510727 1.708140229e-38
40.3061676 -10.17289925 -1.076837659 1.983646717e-38
40.28603363 -9.995764732 -1.075215816 1.983646717e-38
40.12305832 -9.784245491 -1.069812536 1.983646717e-38
40.00682831 -9.585693359 -1.065670848 1.983646717e-38
40.15818787 -9.451407433 -1.068688631 1.983646717e-38
40.05827713 -9.258099556 -1.065029502 1.983646717e-38
39.91377258 -9.05586338 -1.060207844 1.983646717e-38
40.54727173 -8.85743618 -1.075108647 1.983646717e-38
40.50745392 -8.678273201 -1.073123813 1.983646717e-38
41.18323517 -8.65004158 -1.090094447 1.974463167e-38
41.42489243 -8.527074814 -1.095582604 1.974463167e-38
42.13332748 -8.320375443 -1.112503886 1.974463167e-38
42.59508133 -8.233816147 -1.123817801 1.965279618e-38
84.33955383 -15.95172501 -2.223487616 1.66222248e-38
84.32054901 -15.24699688 -2.21967268 1.66222248e-38
84.4160614 -14.91405964 -2.220598459 1.66222248e-38
84.58033752 -14.59272099 -2.223351717 1.66222248e-38
84.70821381 -13.56494617 -2.222254276 1.66222248e-38
84.78861237 -13.22843742 -2.222944021 1.66222248e-38
84.99053192 -12.91019821 -2.226871014 1.66222248e-38
85.18300629 -11.19283867 -2.22556138 1.66222248e-38
85.18721771 -10.84516811 -2.224517345 1.66222248e-38
85.34073639 -10.51627636 -2.227401257 1.66222248e-38
85.27568817 -9.812911987 -2.223574638 1.66222248e-38
43.90147781 -4.873159409 -1.144212842 1.965279618e-38
43.88208008 -4.692473888 -1.143211603 1.965279618e-38
81.70010376 -7.741214752 -2.125856876 1.689773129e-38
78.77600861 -7.144790649 -2.048996449 1.708140229e-38
78.96586609 -6.202795029 -2.051843882 1.708140229e-38
79.0460968 -5.570063114 -2.052706003 1.708140229e-38
79.1023407 -5.254532337 -2.053594112 1.708140229e-38
79.02931976 -4.930653572 -2.051175117 1.708140229e-38
79.13703156 -3.979979753 -2.052579165 1.708140229e-38
79.1502533 -3.661806107 -2.052514315 1.708140229e-38
41.10222626 -1.570464492 -1.065497518 1.983646717e-38
40.96847153 -1.235607266 -1.061734676 1.983646717e-38
41.00086212 -1.071661592 -1.062460661 1.983646717e-38
41.03406143 -0.2474436462 -1.062976956 1.983646717e-38
42.69084167 -0.08584942669 -1.1058743 1.974463167e-38
79.29946136 0.1593051851 -2.054187059 1.708140229e-38
79.37088013 0.4785704911 -2.056077719 1.708140229e-38
79.26633453 1.752827406 -2.053828001 1.708140229e-38
79.36001587 2.074074745 -2.056457996 1.708140229e-38
79.29512787 2.391414404 -2.055006504 1.708140229e-38
79.35422516 2.712531328 -2.056797981 1.708140229e-38
32.61595154 1.246173859 -0.8455014825 2.057115114e-38
32.42591476 1.500087023 -0.8408669829 2.057115114e-38
32.38196945 1.628515959 -0.8398835063 2.057115114e-38
32.37654495 2.28139925 -0.8407651186 2.057115114e-38
32.47578049 2.55095458 -0.8438476324 2.057115114e-38
39.84408951 3.290928125 -1.03564322 1.992830267e-38
42.1076889 3.648397923 -1.094853878 1.974463167e-38
61.39006042 5.567815304 -1.596786976 1.827526374e-38
63.42754745 6.009764671 -1.650393128 1.818342824e-38
82.5164032 8.153317451 -2.147928953 1.68058958e-38
85.61478424 9.155081749 -2.230420113 1.66222248e-38
85.55839539 9.497030258 -2.229921818 1.66222248e-38
85.63456726 9.854129791 -2.232929707 1.66222248e-38
45.61234283 5.806871414 -1.191085815 1.946912519e-38
45.52949524 6.355172634 -1.190834641 1.946912519e-38
45.52531815 6.541270733 -1.191406608 1.946912519e-38
45.58525085 6.737019539 -1.193674445 1.946912519e-38
45.60891724 6.927978516 -1.195017815 1.946912519e-38
45.78273773 7.142820835 -1.200310588 1.946912519e-38
70.45558929 11.28245735 -1.848354459 1.763241526e-38
84.74767303 14.97251797 -2.229315042 1.66222248e-38
84.74919128 15.32438469 -2.230960846 1.66222248e-38
84.6210022 16.00483894 -2.230904341 1.66222248e-38
84.4045639 16.31561279 -2.226908922 1.66222248e-38
84.33596802 16.65432739 -2.22684288 1.66222248e-38
77.72853088 15.67440224 -2.054023981 1.708140229e-38
77.4376297 16.59007072 -2.051476479 1.708140229e-38
77.30136871 17.21201897 -2.051464796 1.708140229e-38
77.24491119 17.52566147 -2.051820517 1.708140229e-38
77.07221985 18.1391983 -2.051049709 1.708140229e-38
76.77742004 19.37791252 -2.051224947 1.708140229e-38
76.69730377 19.68593025 -2.051180601 1.708140229e-38
76.52272034 20.29829216 -2.05081439 1.708140229e-38
76.19010925 21.52707672 -2.050915241 1.708140229e-38
54.11458206 15.52498245 -1.458340168 1.873444122e-38
57.51731873 17.00285721 -1.553673029 1.845893473e-38
60.37509918 18.11190224 -1.632825255 1.818342824e-38
61.90896988 18.84360695 -1.676341414 1.809159274e-38
75.5535202 23.32894135 -2.048321962 1.708140229e-38
72.64717865 23.07292175 -1.974501729 1.726507328e-38
75.19123077 24.21408081 -2.046279907 1.708140229e-38
74.97213745 24.81054688 -2.045685053 1.708140229e-38
74.83700562 25.10001945 -2.044719934 1.708140229e-38
39.23728561 13.33570576 -1.073508501 1.983646717e-38
74.4736557 25.98146057 -2.043203354 1.708140229e-38
74.31045532 26.59660721 -2.044527292 1.708140229e-38
74.11183929 26.86208725 -2.042024612 1.708140229e-38
74.08584595 27.19004822 -2.04429698 1.708140229e-38
73.76422119 27.74696922 -2.041515112 1.708140229e-38
32.55958557 13.00037861 -0.908177197 2.038748015e-38
32.06560516 12.95279598 -0.8958380222 2.038748015e-38
31.47107124 12.86002636 -0.8806704283 2.047931564e-38
31.39427376 12.97615242 -0.8799729943 2.047931564e-38
29.6557045 12.81966305 -0.8369095922 2.057115114e-38
29.2341404 12.7771759 -0.8264596462 2.057115114e-38
28.90402603 12.77153206 -0.8185688853 2.066298664e-38
28.515728 12.73724365 -0.809014082 2.066298664e-38
27.50974464 12.68795013 -0.7847614884 2.075482213e-38
26.66325569 12.68969917 -0.7649214864 2.084665763e-38
70.7231369 34.00838089 -2.032836199 1.708140229e-38
70.37532043 34.54049683 -2.030754805 1.708140229e-38
70.25794983 34.83402252 -2.031392097 1.708140229e-38
70.08790588 35.10140991 -2.030528545 1.708140229e-38
69.94452667 35.38202286 -2.030491829 1.708140229e-38
69.74912262 35.63604355 -2.02895236 1.708140229e-38
23.61304283 12.30466938 -0.6897431016 2.103032862e-38
23.52769661 12.50175667 -0.6901630163 2.103032862e-38
23.34551048 12.52559662 -0.686291039 2.103032862e-38
68.62636566 37.53385162 -2.026225567 1.708140229e-38
68.27482605 38.05783081 -2.02481842 1.708140229e-38
68.18235016 38.36641312 -2.026620626 1.708140229e-38
67.84063721 38.89549637 -2.025701046 1.717323778e-38
67.29692841 39.66971588 -2.023611546 1.717323778e-38
67.01451874 39.86713028 -2.019913435 1.717323778e-38
66.92551422 40.17924881 -2.02208662 1.717323778e-38
66.80571747 40.4735527 -2.023368359 1.717323778e-38
19.76546669 12.19302368 -0.6015917659 2.130583511e-38
19.6677227 12.35211849 -0.6016241908 2.130583511e-38
65.79483795 41.69153214 -2.017724752 1.717323778e-38
65.60746002 41.94340897 -2.01713109 1.717323778e-38
65.48774719 42.23873901 -2.018659353 1.717323778e-38
65.30756378 42.49515533 -2.01835084 1.717323778e-38
64.85475922 42.94667435 -2.014966965 1.717323778e-38
64.50980377 43.46824646 -2.015030146 1.717323778e-38
64.29125977 43.69795227 -2.013693333 1.717323778e-38
64.06175232 43.91941071 -2.01201129 1.717323778e-38
63.91853333 44.20006561 -2.013078213 1.717323778e-38
63.45474625 44.63775635 -2.009707212 1.717323778e-38
62.86402512 45.36528015 -2.008189678 1.717323778e-38
62.69973373 45.63109207 -2.008779764 1.717323778e-38
62.2397995 46.06631088 -2.005843163 1.717323778e-38
15.92243099 11.88422775 -0.5146793127 2.167317709e-38
61.64806366 46.78952789 -2.004820824 1.717323778e-38
61.53656769 47.09594345 -2.007317781 1.717323778e-38
61.28989029 47.29909515 -2.005473137 1.717323778e-38
61.11141205 47.55446625 -2.005865574 1.717323778e-38
60.85513306 47.74905014 -2.00374651 1.717323778e-38
60.6038475 47.94685745 -2.001800299 1.717323778e-38
60.19496155 48.4151535 -2.001073837 1.717323778e-38
59.94727325 48.61411667 -1.999323964 1.717323778e-38
59.69341278 48.80735397 -1.997396708 1.717323778e-38
53.83718491 44.38130951 -1.807391405 1.772425076e-38
53.40661621 44.38817978 -1.798914433 1.772425076e-38
58.6611557 49.96377945 -1.996060371 1.717323778e-38
58.37659454 50.12771606 -1.99320662 1.717323778e-38
58.00417328 50.62371826 -1.994322896 1.717323778e-38
57.74155426 50.8049469 -1.992296815 1.717323778e-38
57.45687866 50.96575928 -1.989529014 1.717323778e-38
57.03779221 51.41931152 -1.989270329 1.726507328e-38
56.34770584 52.04260635 -1.986948013 1.726507328e-38
56.18607712 52.31344604 -1.988656163 1.726507328e-38
55.88960266 52.45836258 -1.985597134 1.726507328e-38
55.48007202 52.91944504 -1.986108661 1.726507328e-38
55.25191879 53.12763596 -1.985565543 1.726507328e-38
54.93210602 53.24676895 -1.981749892 1.726507328e-38
52.5541954 55.20803452 -1.974486113 1.726507328e-38
52.1027565 55.62241745 -1.974261999 1.726507328e-38
51.84711456 55.7973671 -1.973043561 1.726507328e-38
51.36632156 56.17909622 -1.971890569 1.726507328e-38
51.0768013 56.31534958 -1.969444871 1.726507328e-38
50.84236145 56.5117836 -1.969150901 1.726507328e-38
50.06351852 57.01424026 -1.965476632 1.726507328e-38
49.60876083 57.42103958 -1.965689421 1.726507328e-38
49.39120865 57.63583374 -1.966220737 1.726507328e-38
48.29990005 58.23170853 -1.959798098 1.726507328e-38
48.08245468 58.4462204 -1.960499167 1.726507328e-38
47.08039474 59.14131165 -1.958170414 1.726507328e-38
46.79184341 59.2661972 -1.95605886 1.735690877e-38
46.3431778 59.18556976 -1.947274089 1.735690877e-38
45.84144211 59.03221512 -1.936137676 1.735690877e-38
45.34025192 58.87381363 -1.924960017 1.735690877e-38
36.5707283 47.88360214 -1.5607692 1.836709923e-38
43.37937164 58.24149704 -1.881234407 1.754057977e-38
39.72136307 53.78003693 -1.731929421 1.790792175e-38
39.42623138 53.83196259 -1.728482842 1.790792175e-38
41.95094681 57.76494217 -1.849350452 1.763241526e-38
41.47283554 57.5921936 -1.838494062 1.763241526e-38
40.50667191 57.21499634 -1.815948367 1.772425076e-38
40.00092697 56.98496628 -1.803563118 1.772425076e-38
28.83478546 41.43083191 -1.307575941 1.91017832e-38
37.31668854 55.98534012 -1.74292469 1.790792175e-38
36.89639282 55.83981705 -1.733759522 1.790792175e-38
36.46535873 55.67273331 -1.724000692 1.790792175e-38
36.04106903 55.51055908 -1.714490891 1.799975725e-38
35.64238739 55.38280106 -1.706122279 1.799975725e-38
23.80433655 37.64982605 -1.153876066 1.956096068e-38
32.70215225 54.10065079 -1.63758111 1.818342824e-38
31.51146126 53.57997513 -1.610217214 1.827526374e-38
31.18256187 53.51185608 -1.604389429 1.827526374e-38
30.32566452 53.01660538 -1.582157373 1.836709923e-38
25.49264526 44.98577499 -1.339424014 1.90099477e-38
29.18762016 52.48564148 -1.555698514 1.836709923e-38
28.88111687 52.42965698 -1.550609469 1.845893473e-38
28.47854805 52.19421005 -1.540255427 1.845893473e-38
28.17304611 52.13162613 -1.535046458 1.845893473e-38
27.75864029 51.86223602 -1.523795724 1.845893473e-38
27.39715004 51.68503952 -1.515333414 1.855077022e-38
27.09701347 51.6193428 -1.510251403 1.855077022e-38
26.69586945 51.35574341 -1.499376178 1.855077022e-38
26.03958321 51.09284592 -1.485536814 1.864260572e-38
25.68730927 50.90644836 -1.477083802 1.864260572e-38
24.77658463 50.60997772 -1.459732413 1.873444122e-38
24.44224358 50.43968201 -1.451953411 1.873444122e-38
23.52692795 50.08095932 -1.433375955 1.873444122e-38
23.22849464 49.96666718 -1.42738986 1.882627671e-38
22.67675209 49.8237114 -1.4180758 1.882627671e-38
22.36957741 49.67756653 -1.411318898 1.882627671e-38
21.76601028 49.39421844 -1.398268104 1.882627671e-38
21.51270103 49.3559761 -1.39473176 1.891811221e-38
21.15735245 49.0783577 -1.38445878 1.891811221e-38
20.89656448 49.01455688 -1.380291224 1.891811221e-38
20.64204788 48.96226883 -1.376473188 1.891811221e-38
20.07346725 48.70371246 -1.364622712 1.90099477e-38
19.39734077 48.72307205 -1.358507633 1.90099477e-38
19.24639893 48.9151268 -1.361690879 1.90099477e-38
19.04790688 48.98783112 -1.361582756 1.90099477e-38
18.88298798 49.1476326 -1.363913655 1.90099477e-38
18.68966675 49.2348671 -1.364225268 1.90099477e-38
18.48854446 49.30138779 -1.363982201 1.90099477e-38
18.32604408 49.47210693 -1.366654515 1.90099477e-38
18.14709091 49.60018539 -1.368184924 1.891811221e-38
17.90622139 49.5582962 -1.365046501 1.891811221e-38
17.72593307 49.68347931 -1.366530061 1.891811221e-38
17.58801651 49.9299202 -1.371340513 1.891811221e-38
17.37751389 49.97259903 -1.370585799 1.891811221e-38
17.19123459 50.08514404 -1.371745229 1.891811221e-38
16.82619286 50.33599091 -1.374872684 1.891811221e-38
11.4262228 34.64434433 -0.9449874163 2.020380915e-38
16.25831795 50.66091156 -1.378301144 1.891811221e-38
15.8755846 50.87017822 -1.380443454 1.891811221e-38
15.31975746 51.25495148 -1.385768652 1.891811221e-38
15.1332655 51.38293076 -1.387623787 1.891811221e-38
14.9412775 51.49404144 -1.38899529 1.891811221e-38
14.54513645 51.67763901 -1.390722752 1.891811221e-38
14.16056728 51.90783691 -1.393799424 1.891811221e-38
13.97399426 52.04706955 -1.396034479 1.891811221e-38
13.79963493 52.2352066 -1.399545193 1.882627671e-38
13.42609596 52.52776337 -1.404471159 1.882627671e-38
12.91411018 53.1903801 -1.417904019 1.882627671e-38
12.35518837 53.70504761 -1.427559853 1.882627671e-38
13.78458118 61.04000473 -1.621036172 1.827526374e-38
8.287475586 38.12144089 -1.010569096 2.002013816e-38
8.096431732 37.97742844 -1.005884171 2.002013816e-38
7.8346591 38.25522995 -1.011534214 2.002013816e-38
12.49528313 62.28625107 -1.645681143 1.818342824e-38
12.31166077 62.67673111 -1.654650807 1.818342824e-38
6.096149921 31.70737267 -0.8363955021 2.057115114e-38
5.936961174 31.56301117 -0.8319548965 2.057115114e-38
5.794946194 31.5045681 -0.8297887444 2.057115114e-38
5.684060574 31.61581421 -0.8321107626 2.057115114e-38
6.719945431 38.26028824 -1.006267548 2.002013816e-38
11.00302505 64.15944672 -1.6862849 1.809159274e-38
10.3236227 64.88523102 -1.701961875 1.799975725e-38
4.703511715 31.17517853 -0.8167088032 2.066298664e-38
4.543433666 30.95729446 -0.810518384 2.066298664e-38
4.427644253 31.03625488 -0.8121085167 2.066298664e-38
4.188844204 31.15171051 -0.8142242432 2.066298664e-38
8.690274239 66.65686035 -1.741365671 1.790792175e-38
7.727828979 67.75579071 -1.766579747 1.781608625e-38
7.493976116 68.13697815 -1.775700212 1.781608625e-38
7.246562481 68.41752625 -1.782232523 1.781608625e-38
6.486819744 69.20336151 -1.800569296 1.772425076e-38
6.23537302 69.52645111 -1.808281064 1.772425076e-38
5.979984283 69.83298492 -1.815653205 1.772425076e-38
5.698727131 69.8495636 -1.81540978 1.772425076e-38
3.996238232 69.68437195 -1.808077335 1.772425076e-38
3.714838266 69.6772995 -1.807499051 1.772425076e-38
3.436691523 69.73223114 -1.808556914 1.772425076e-38
2.013265371 60.68044281 -1.57273829 1.836709923e-38
1.255795121 43.07388306 -1.116268754 1.974463167e-38
1.467040896 69.49959564 -1.800730109 1.772425076e-38
1.185560942 69.38420868 -1.797605634 1.772425076e-38
0.9063744545 69.36894226 -1.797094226 1.772425076e-38
0.3482213318 69.29489136 -1.795050859 1.772425076e-38
0.0696560666 69.30056 -1.795177341 1.772425076e-38
-0.2088585943 69.28424835 -1.794764042 1.772425076e-38
-0.4876630604 69.31632233 -1.795631409 1.772425076e-38
-0.7653040886 69.22757721 -1.793390512 1.772425076e-38
-1.04241097 69.14735413 -1.791407824 1.772425076e-38
-1.318817139 69.05800629 -1.789215565 1.772425076e-38
-1.596323848 69.04998779 -1.789161563 1.772425076e-38
-1.869779587 68.89054108 -1.785209179 1.772425076e-38
-2.148947001 68.95449829 -1.787067771 1.772425076e-38
-2.703063011 68.93038177 -1.786964774 1.781608625e-38
-3.251092434 68.77845764 -1.783637285 1.781608625e-38
-3.801626444 68.70759583 -1.782540083 1.781608625e-38
-4.078368664 68.70162964 -1.782795429 1.781608625e-38
-4.34569788 68.54535675 -1.7791785 1.781608625e-38
-5.708899498 68.28166199 -1.774950981 1.781608625e-38
-5.982549191 68.24921417 -1.774717093 1.781608625e-38
-6.247551441 68.12296295 -1.772072911 1.781608625e-38
-6.513068676 68.01087189 -1.769822478 1.781608625e-38
-6.373203754 56.89352798 -1.482998371 1.864260572e-38
-8.671113968 67.56851196 -1.764659405 1.781608625e-38
-9.208929062 67.45891571 -1.763676167 1.781608625e-38
-9.47180748 67.3626709 -1.762149096 1.781608625e-38
-8.677709579 58.31104279 -1.527137995 1.845893473e-38
-10.25987148 67.08901215 -1.758089066 1.781608625e-38
-10.52607059 67.0256424 -1.757517815 1.781608625e-38
-10.79373169 66.97232819 -1.757246971 1.781608625e-38
-11.04787159 66.83738708 -1.754868269 1.781608625e-38
-11.31057549 66.75788879 -1.753948092 1.781608625e-38
-11.56526279 66.63352203 -1.751891255 1.781608625e-38
-5.277705669 27.75164032 -0.7317689657 2.093849312e-38
-12.89652157 66.35857391 -1.751127243 1.790792175e-38
-13.13208675 66.14978027 -1.746994495 1.790792175e-38
-13.63621902 65.91008759 -1.743501544 1.790792175e-38
-14.18403721 65.88348389 -1.745759249 1.790792175e-38
-14.70148563 65.71475983 -1.744365573 1.790792175e-38
-14.94421482 65.56160736 -1.741883755 1.790792175e-38
-15.19427872 65.44348145 -1.740349174 1.790792175e-38
-15.28507614 64.65306091 -1.720952511 1.790792175e-38
-15.58045197 64.73889923 -1.72489512 1.790792175e-38
-15.97042942 65.2065506 -1.739054918 1.790792175e-38
-16.48119164 65.02463531 -1.737677097 1.790792175e-38
-16.98273087 64.81136322 -1.735568285 1.790792175e-38
-17.72971916 64.48023224 -1.732295275 1.790792175e-38
-17.981493 64.38241577 -1.731606007 1.790792175e-38
-18.72373962 64.04833221 -1.728561997 1.790792175e-38
-18.95391273 63.88121033 -1.726082563 1.790792175e-38
-19.22227669 63.8433609 -1.727149487 1.790792175e-38
-19.47843933 63.76438904 -1.727117181 1.790792175e-38
-19.69163322 63.54695892 -1.72334826 1.790792175e-38
-20.19257164 63.35728073 -1.722553968 1.790792175e-38
-20.41474152 63.17575073 -1.71984005 1.790792175e-38
-20.69684219 63.17945862 -1.722186685 1.790792175e-38
-20.90442848 62.95655441 -1.718384504 1.799975725e-38
-21.38904381 62.72528839 -1.716713309 1.799975725e-38
-21.88812637 62.53816605 -1.716352463 1.799975725e-38
-22.14381981 62.46231079 -1.716709018 1.799975725e-38
-22.38924408 62.3575592 -1.716291428 1.799975725e-38
-22.86034203 62.09542084 -1.714078546 1.799975725e-38
-23.53899574 61.63573074 -1.70909667 1.799975725e-38
-14.41709137 36.85874557 -1.025236249 2.002013816e-38
-14.65711689 37.03295898 -1.031715393 1.992830267e-38
-24.50855064 61.20302963 -1.707808733 1.799975725e-38
-24.73574257 61.05806732 -1.706521749 1.799975725e-38
-24.97089958 60.93353653 -1.705839157 1.799975725e-38
-25.62922478 60.4519043 -1.70087862 1.799975725e-38
-26.12746811 60.27400589 -1.701736808 1.799975725e-38
-26.57070351 59.97044754 -1.69913125 1.799975725e-38
-26.78179169 59.79685211 -1.697259545 1.799975725e-38
-27.46011734 59.38102722 -1.694725871 1.799975725e-38
-28.16748047 59.03108215 -1.694308877 1.799975725e-38
-28.37769508 58.8623848 -1.692738056 1.799975725e-38
-29.46860504 58.10948563 -1.687776208 1.799975725e-38
-29.71442604 58.01485443 -1.688486338 1.799975725e-38
-29.95871544 57.91685104 -1.689120412 1.799975725e-38
-30.5678978 57.38783264 -1.68432641 1.809159274e-38
-15.06890774 27.48596191 -0.8119846582 2.066298664e-38
-31.65247154 56.6497612 -1.68100071 1.809159274e-38
-31.89269257 56.54459 -1.681665421 1.809159274e-38
-32.48770905 56.01004791 -1.677298546 1.809159274e-38
-32.6719017 55.80950165 -1.675212383 1.809159274e-38
-32.88504791 55.65919495 -1.67465651 1.809159274e-38
-34.18527985 54.79768753 -1.673057914 1.809159274e-38
-34.33240509 54.54407501 -1.669520736 1.809159274e-38
-34.57403946 54.44120026 -1.670613527 1.809159274e-38
-34.75578308 54.24440002 -1.66884172 1.809159274e-38
-35.77601624 53.44077301 -1.665912986 1.809159274e-38
-35.99954605 53.30981827 -1.666326165 1.809159274e-38
-36.18877792 53.12824631 -1.665183902 1.809159274e-38
-36.3732872 52.94048691 -1.663876772 1.809159274e-38
-36.57165909 52.77342224 -1.66322124 1.809159274e-38
-36.76662827 52.60176468 -1.662460685 1.809159274e-38
-37.55814362 51.93532181 -1.660271287 1.809159274e-38
-37.71699142 51.71597672 -1.658097982 1.809159274e-38
-37.89354324 51.52168274 -1.656733036 1.809159274e-38
-38.23572159 51.12069702 -1.653669119 1.809159274e-38
-38.47957611 51.01781082 -1.655338526 1.809159274e-38
-38.66407394 50.83607864 -1.654465914 1.809159274e-38
-38.86825562 50.68043518 -1.654474974 1.809159274e-38
-26.02584648 33.37597275 -1.096361279 1.974463167e-38
-26.15889549 33.26996231 -1.096329451 1.974463167e-38
-23.45297241 29.33986282 -0.9730013609 2.011197366e-38
-23.45164299 29.09756851 -0.9680841565 2.020380915e-38
-40.54980087 49.08857727 -1.649344325 1.818342824e-38
-35.14730835 40.84775162 -1.395917654 1.891811221e-38
-41.95672989 47.58866501 -1.643445849 1.818342824e-38
-42.27046967 47.17438507 -1.640823126 1.818342824e-38
-42.41298676 46.95238876 -1.639025092 1.818342824e-38
-42.62015152 46.80213928 -1.639740586 1.818342824e-38
-43.00691605 46.47073364 -1.640194654 1.818342824e-38
-43.170784 46.27327347 -1.63933742 1.818342824e-38
-43.27454758 46.01222992 -1.636235356 1.818342824e-38
-43.50279236 45.88389969 -1.637874961 1.818342824e-38
-43.81415176 45.47437286 -1.635781407 1.818342824e-38
-43.94458771 45.24436951 -1.633845329 1.818342824e-38
-44.16010284 45.10200882 -1.635101676 1.818342824e-38
-44.78298187 44.29055023 -1.63158679 1.818342824e-38
-43.95122147 43.11980057 -1.594960809 1.827526374e-38
-45.13148117 43.92312241 -1.631368637 1.818342824e-38
-45.31938934 43.7526207 -1.631789923 1.818342824e-38
-45.98323059 42.98670959 -1.63058877 1.818342824e-38
-46.10632324 42.75577545 -1.628851295 1.818342824e-38
-46.55461502 42.13873291 -1.626609087 1.818342824e-38
-43.73229599 39.26544189 -1.522471666 1.855077022e-38
-46.99325943 41.51579285 -1.624330401 1.818342824e-38
-47.18238831 41.34629822 -1.625099897 1.818342824e-38
-32.63704681 28.13959694 -1.116292238 1.974463167e-38
-32.76385498 28.02007103 -1.11676693 1.974463167e-38
-47.71489716 40.47531128 -1.620809555 1.827526374e-38
-47.87298965 40.27961349 -1.620671868 1.827526374e-38
-47.99934006 40.05743027 -1.619491577 1.827526374e-38
-48.32526779 39.67475891 -1.619668841 1.827526374e-38
-48.81862259 38.7826767 -1.615087152 1.827526374e-38
-49.18300629 38.43129349 -1.61686945 1.827526374e-38
-49.43638229 37.99307632 -1.615108848 1.827526374e-38
-49.53084183 37.74993896 -1.613222361 1.827526374e-38
-49.71556473 37.57570648 -1.614307523 1.827526374e-38
-49.80463409 37.32937622 -1.612310648 1.827526374e-38
-49.9956398 37.15960693 -1.613645792 1.827526374e-38
-50.12134171 36.94117737 -1.61289084 1.827526374e-38
-50.15248871 36.65393829 -1.609143853 1.827526374e-38
-43.18036652 31.02878952 -1.377398133 1.891811221e-38
-43.03208542 30.4006176 -1.364826202 1.90099477e-38
-43.04530334 29.89408684 -1.357575178 1.90099477e-38
-55.88742447 37.4952507 -1.743350625 1.790792175e-38
-56.0398407 37.27170181 -1.743414521 1.790792175e-38
-15.32105064 10.1013279 -0.4753753841 2.176501259e-38
-15.38328838 9.96585083 -0.4748059809 2.176501259e-38
-42.93107224 27.32478905 -1.318252087 1.91017832e-38
-42.89628983 27.06093979 -1.313832045 1.91017832e-38
-42.70938873 26.70363235 -1.304807067 1.91017832e-38
-42.79188919 26.51653862 -1.304064035 1.91017832e-38
-57.53874969 34.38677216 -1.73638308 1.790792175e-38
-42.79997635 25.34544373 -1.288520217 1.91936187e-38
-42.83747482 25.13559723 -1.286598086 1.91936187e-38
-42.73180389 24.38570213 -1.274496555 1.91936187e-38
-58.26835632 32.94215393 -1.733914018 1.790792175e-38
-58.43809509 32.72883606 -1.735036969 1.790792175e-38
-42.62818146 23.64964104 -1.262802482 1.928545419e-38
-42.57321167 23.17352676 -1.255615234 1.928545419e-38
-42.54174423 22.93517494 -1.251954913 1.928545419e-38
-42.52998352 22.70867729 -1.248919606 1.928545419e-38
-33.97371674 17.96499062 -0.9955313802 2.011197366e-38
-33.9721489 17.78974533 -0.993375957 2.011197366e-38
-42.55322647 22.06575394 -1.241693258 1.928545419e-38
-19.23384285 9.875717163 -0.5600748062 2.14895061e-38
-19.54250717 9.836468697 -0.5667438507 2.14895061e-38
-19.7432766 9.838223457 -0.5714145899 2.13976706e-38
-19.88951874 9.811511993 -0.5745013952 2.13976706e-38
-42.40542221 20.49634933 -1.220065236 1.937728969e-38
-60.1381073 28.76976776 -1.726915121 1.790792175e-38
-60.18321609 28.49460983 -1.724906683 1.790792175e-38
-42.5163269 19.71300316 -1.213975549 1.946912519e-38
-42.27243042 19.39384651 -1.204776406 1.946912519e-38
-42.23721695 18.968153 -1.19939208 1.946912519e-38
-21.95698929 9.754705429 -0.6223800182 2.130583511e-38
-22.12233162 9.721835136 -0.6259566545 2.130583511e-38
-22.25016403 9.671512604 -0.6284666061 2.121399961e-38
-22.47130203 9.660410881 -0.6336117387 2.121399961e-38
-22.687994 9.645670891 -0.6386240125 2.121399961e-38
-23.04501534 9.579471588 -0.6464830041 2.121399961e-38
-23.7141571 9.634771347 -0.663061142 2.112216412e-38
-23.96481895 9.624542236 -0.6689835787 2.112216412e-38
-24.37303162 9.561663628 -0.6782101393 2.112216412e-38
-24.84548378 9.517193794 -0.6892035604 2.103032862e-38
-25.15106773 9.518504143 -0.6966139078 2.103032862e-38
-25.47445869 9.52400589 -0.7045045495 2.103032862e-38
-25.75439262 9.510832787 -0.7111839652 2.103032862e-38
-27.12807655 9.402970314 -0.7437468767 2.084665763e-38
-27.07583427 9.263100624 -0.7412908077 2.084665763e-38
-62.83385468 20.93380356 -1.715614557 1.799975725e-38
-62.93345261 20.68629074 -1.716050029 1.799975725e-38
-63.03266144 20.43848419 -1.716498613 1.799975725e-38
-29.09525299 9.305134773 -0.7912932634 2.075482213e-38
-63.16646576 19.64324951 -1.713570237 1.799975725e-38
-42.08362961 12.90164948 -1.140223742 1.965279618e-38
-41.93800354 12.67278957 -1.134888887 1.965279618e-38
-30.96835518 9.086976051 -0.8360340595 2.057115114e-38
-41.91192627 12.11523056 -1.130142927 1.965279618e-38
-41.98875809 11.95484447 -1.130912185 1.965279618e-38
-63.68027115 17.5785408 -1.711286545 1.799975725e-38
-38.34316254 10.41866207 -1.029266 1.992830267e-38
-63.90122604 17.08789825 -1.713471174 1.799975725e-38
-63.93462372 16.8217144 -1.712547302 1.799975725e-38
-63.90057755 16.53833771 -1.709835887 1.799975725e-38
-34.80656433 8.859272003 -0.9303876162 2.029564465e-38
-64.10082245 15.76791859 -1.709978342 1.799975725e-38
-64.12726593 15.50128841 -1.70900023 1.799975725e-38
-64.21594238 15.24973297 -1.709728003 1.799975725e-38
-64.31807709 14.7287941 -1.709235072 1.799975725e-38
-64.3910675 14.47328186 -1.709606886 1.799975725e-38
-64.48207855 13.67895794 -1.707522035 1.799975725e-38
-64.57054901 13.426754 -1.708428621 1.799975725e-38
-64.59426117 13.16099358 -1.70764339 1.799975725e-38
-64.62488556 12.89687157 -1.707065821 1.799975725e-38
-64.70990753 12.64358425 -1.707956314 1.799975725e-38
-64.78797913 12.11888504 -1.707387686 1.799975725e-38
-64.79938507 11.85161018 -1.706421375 1.799975725e-38
-64.82027435 11.58636761 -1.70573163 1.799975725e-38
-64.89381409 11.33049202 -1.706457257 1.799975725e-38
-65.0125885 10.54490185 -1.706104875 1.799975725e-38
-65.0311203 10.27974892 -1.705502748 1.799975725e-38
-65.04191589 10.01354694 -1.704707503 1.799975725e-38
-65.0816803 9.752124786 -1.704708815 1.799975725e-38
-65.00376892 9.473452568 -1.70166111 1.799975725e-38
-65.10010529 9.22040844 -1.703192711 1.799975725e-38
-65.1402359 8.692440033 -1.702355146 1.799975725e-38
-46.58686447 6.02612257 -1.216847897 1.937728969e-38
-46.63593292 5.841944695 -1.217511058 1.937728969e-38
-64.90583801 7.601063728 -1.692824602 1.799975725e-38
-64.98592377 7.345743656 -1.694130778 1.799975725e-38
-64.93026733 7.075232983 -1.691916347 1.799975725e-38
-64.95531464 6.813866615 -1.69185257 1.799975725e-38
-64.8921051 6.543576241 -1.689504743 1.799975725e-38
-64.9753952 6.288232327 -1.691003442 1.799975725e-38
-65.39051056 5.268698692 -1.69938004 1.799975725e-38
-65.46305847 3.952148914 -1.698862791 1.799975725e-38
-65.53940582 3.692424774 -1.700435758 1.799975725e-38
-65.70453644 3.171990871 -1.704007268 1.799975725e-38
-65.65969849 2.640857458 -1.702239275 1.799975725e-38
-65.64120483 2.375874043 -1.701492906 1.799975725e-38
-65.66230011 2.112352371 -1.701811075 1.799975725e-38
-65.6001358 1.846418023 -1.699988723 1.799975725e-38
-65.61833191 1.582953453 -1.700285792 1.799975725e-38
-65.63217926 1.319361091 -1.700495481 1.799975725e-38
-65.64492035 0.791662693 -1.700596452 1.799975725e-38
-65.66578674 0.5279365778 -1.701073527 1.799975725e-38
-65.70037842 0.2640811503 -1.701928258 1.799975725e-38
-43.31440735 -1.955423249e-05 -1.781210899 1.965279618e-38
-43.28770447 -0.1740477532 -1.780127287 1.965279618e-38
-12.74682522 -0.1537643373 -0.5242236853 2.222419007e-38
-13.51233101 -0.3260098696 -0.5558271408 2.222419007e-38
-12.69740486 -0.3574275076 -0.5223587751 2.222419007e-38
-12.66029263 -0.4073203206 -0.5208970904 2.222419007e-38
-12.61578941 -0.5074469447 -0.5192161798 2.222419007e-38
-12.53933907 -0.5548545122 -0.516158998 2.222419007e-38
-12.62395859 -0.6094806194 -0.5197374225 2.222419007e-38
-12.50354576 -0.9568834305 -0.5156843662 2.222419007e-38
-12.52832603 -1.009458303 -0.5168704391 2.222419007e-38
-12.53823185 -1.162615657 -0.517819643 2.222419007e-38
-12.53645039 -1.31509304 -0.5183632374 2.222419007e-38
-12.54003716 -1.468563437 -0.5192072392 2.222419007e-38
-12.58251572 -1.524837852 -0.5212141871 2.222419007e-38
-12.57770824 -1.575615525 -0.5212730765 2.222419007e-38
-42.99156952 -5.736887932 -1.783603668 1.965279618e-38
-12.64010906 -1.790318131 -0.5249851942 2.222419007e-38
-42.78464508 -6.411084652 -1.77906847 1.965279618e-38
-42.78512955 -6.587121487 -1.780179739 1.965279618e-38
-42.56640244 -7.785305977 -1.779487014 1.965279618e-38
-42.19952011 -8.069387436 -1.766801119 1.974463167e-38
-39.93194962 -7.969076633 -1.674492598 1.992830267e-38
-39.15808868 -7.978429794 -1.643374085 1.992830267e-38
-38.88095474 -8.411564827 -1.635879397 1.992830267e-38
-38.98766708 -8.598852158 -1.641815543 1.992830267e-38
-38.90953064 -8.745783806 -1.639990687 1.992830267e-38
-38.84383011 -9.059710503 -1.640237212 1.992830267e-38
-38.81893539 -9.383605957 -1.642319918 1.992830267e-38
-38.69575882 -9.683779716 -1.64035213 1.992830267e-38
-38.60094833 -10.32235432 -1.643154025 1.992830267e-38
-38.44524765 -10.61264992 -1.640109658 1.992830267e-38
-38.34909439 -10.75216866 -1.637836695 1.992830267e-38
-38.41321945 -10.93689251 -1.642439604 1.992830267e-38
-38.32047272 -11.0772171 -1.640367508 1.992830267e-38
-38.28782272 -11.23473263 -1.640884995 1.992830267e-38
-41.43890381 -12.70410919 -1.782362342 1.965279618e-38
-41.25592041 -13.19438839 -1.781208992 1.965279618e-38
-41.20327377 -13.36034966 -1.781247616 1.965279618e-38
-41.11087799 -13.51324272 -1.779584527 1.965279618e-38
-41.07107162 -13.68336391 -1.780229092 1.965279618e-38
-41.1374855 -14.07393646 -1.787949562 1.965279618e-38
-40.96175766 -14.19799519 -1.782780766 1.965279618e-38
